ply
format ascii 1.0
element vertex 50
property double x
property double y
property double z
end_header
0.419855000000000 0.118614000000000 0.316214000000000
0.563758000000000 0.151703000000000 0.270105000000000
0.728005000000000 0.110958000000000 0.329943000000000
0.405381000000000 0.311645000000000 0.285340000000000
0.557125000000000 0.393657000000000 0.264003000000000
0.736356000000000 0.299178000000000 0.298416000000000
0.439099000000000 0.491421000000000 0.336394000000000
0.720485000000000 0.451922000000000 0.336965000000000
0.147471000000000 0.844018000000000 0.283397000000000
0.125967000000000 1.000000000000000 0.117026000000000
0.146854000000000 0.050365000000000 0.544500000000000
0.317874000000000 0.044090000000000 0.468500000000000
0.573162000000000 0.015166000000000 0.454208000000000
0.821449000000000 0.110431000000000 0.421397000000000
0.954801000000000 0.116109000000000 0.472159000000000
0.058306000000000 0.358264000000000 0.466768000000000
0.318670000000000 0.259157000000000 0.369267000000000
0.859850000000000 0.271386000000000 0.403230000000000
0.908365000000000 0.430352000000000 0.519724000000000
0.045199000000000 0.597290000000000 0.483465000000000
0.304674000000000 0.570650000000000 0.417762000000000
0.545244000000000 0.629915000000000 0.482687000000000
0.783198000000000 0.582560000000000 0.479978000000000
0.118752000000000 0.783215000000000 0.426448000000000
0.297699000000000 0.844805000000000 0.473616000000000
0.486248000000000 0.877350000000000 0.420588000000000
0.335416000000000 0.949730000000000 0.462335000000000
0.469570000000000 0.973101000000000 0.380871000000000
0.170533000000000 0.121055000000000 0.696764000000000
0.288411000000000 0.037635000000000 0.684052000000000
0.571753000000000 0.000000000000000 0.783801000000000
0.822010000000000 0.056611000000000 0.697414000000000
0.925705000000000 0.102622000000000 0.689061000000000
0.142926000000000 0.331413000000000 0.756680000000000
0.264328000000000 0.300219000000000 0.774733000000000
0.848681000000000 0.368970000000000 0.739666000000000
0.070334000000000 0.516441000000000 0.699267000000000
0.362763000000000 0.528094000000000 0.738116000000000
0.539332000000000 0.576693000000000 0.708989000000000
0.789094000000000 0.560184000000000 0.678269000000000
0.056188000000000 0.750673000000000 0.701724000000000
0.237034000000000 0.812774000000000 0.610450000000000
0.369840000000000 0.013738000000000 0.824539000000000
0.561099000000000 0.142443000000000 0.841633000000000
0.673543000000000 0.090829000000000 0.826741000000000
0.419222000000000 0.364011000000000 0.816699000000000
0.568495000000000 0.276589000000000 0.882974000000000
0.745837000000000 0.325510000000000 0.826266000000000
0.056314000000000 0.576820000000000 0.821469000000000
0.630558000000000 0.459809000000000 0.798461000000000
