ply
format ascii 1.0
element vertex 50
property double x
property double y
property double z
end_header
0.073632000000000 0.182445000000000 0.394817000000000
0.244873000000000 0.169543000000000 0.349899000000000
0.438231000000000 0.138525000000000 0.412564000000000
0.666432000000000 0.162361000000000 0.368544000000000
0.782149000000000 0.174551000000000 0.320663000000000
0.935354000000000 0.113272000000000 0.453040000000000
0.220202000000000 0.284816000000000 0.362165000000000
0.371717000000000 0.360005000000000 0.404310000000000
0.647496000000000 0.369178000000000 0.362835000000000
0.097962000000000 0.600141000000000 0.436907000000000
0.242717000000000 0.583577000000000 0.376978000000000
0.398636000000000 0.564476000000000 0.379579000000000
0.603817000000000 0.578998000000000 0.371826000000000
0.843833000000000 0.541056000000000 0.386405000000000
0.978788000000000 0.602161000000000 0.443023000000000
0.106061000000000 0.733815000000000 0.422671000000000
0.218268000000000 0.715421000000000 0.379387000000000
0.360978000000000 0.729434000000000 0.370243000000000
0.624025000000000 0.688356000000000 0.418140000000000
0.788283000000000 0.674888000000000 0.398032000000000
0.314422000000000 0.880275000000000 0.429467000000000
0.517235000000000 0.903171000000000 0.358119000000000
0.069475000000000 0.203171000000000 0.576116000000000
0.305126000000000 0.096829000000000 0.528187000000000
0.430391000000000 0.199937000000000 0.600224000000000
0.649904000000000 0.174667000000000 0.565364000000000
0.798212000000000 0.175198000000000 0.550026000000000
0.064537000000000 0.389424000000000 0.530693000000000
0.267928000000000 0.356640000000000 0.590949000000000
0.666834000000000 0.318611000000000 0.501460000000000
0.800715000000000 0.355809000000000 0.539878000000000
0.952525000000000 0.406969000000000 0.508376000000000
0.125560000000000 0.563099000000000 0.502073000000000
0.183014000000000 0.581959000000000 0.538385000000000
0.397291000000000 0.617872000000000 0.481359000000000
0.676768000000000 0.549636000000000 0.508024000000000
0.751039000000000 0.559519000000000 0.512718000000000
1.000000000000000 0.536503000000000 0.485019000000000
0.048510000000000 0.705257000000000 0.537905000000000
0.268684000000000 0.760960000000000 0.541812000000000
0.401010000000000 0.766807000000000 0.505987000000000
0.143553000000000 0.147615000000000 0.667216000000000
0.279798000000000 0.156142000000000 0.663412000000000
0.384512000000000 0.154967000000000 0.674900000000000
0.642641000000000 0.151232000000000 0.659169000000000
0.769697000000000 0.216493000000000 0.679337000000000
0.950869000000000 0.236504000000000 0.671251000000000
0.256566000000000 0.299154000000000 0.648408000000000
0.940750000000000 0.293070000000000 0.653075000000000
0.000000000000000 0.649203000000000 0.642974000000000
